# 3D point list with one line of data per point:
#   POINT3D_ID, X, Y, Z, R, G, B, ERROR, TRACK[] as (IMAGE_ID, POINT2D_IDX)
# Number of points: 374, mean track length: 4.5144445951444458
3713 0.90005711790668597 1.8331176553315294 11.434969877355476 218 219 214 0.2268166463635615 88 854 89 762 90 1039
3708 -0.54203331214554851 -0.25155404075100168 11.891582024564849 192 191 191 1.6760695365937957 68 1143 89 701 16 908 15 622 90 977 18 1043 95 1554 14 511
3703 -5.2952010800205604 -3.5567730841432486 7.0369150024222709 213 214 209 1.3836265552639784 88 642 89 611 15 353 90 877 14 294 13 280 12 215
3701 2.1691663368690159 -2.2337682442364621 7.2677076414909134 196 195 193 1.3437215009404184 88 645 89 594 69 572 90 202
3699 1.0513099049240564 -2.8221936646026626 7.8634541218736702 21 18 13 1.6517532303603866 89 580 90 851 91 739 87 622 15 358
3698 2.4050220645730969 -3.0011873184204538 8.6631066083487713 153 150 143 2.0622306275408051 88 630 89 579 90 184 15 355 91 140
3695 -2.5531821547233822 -3.2491196419394361 6.1076107014600396 60 61 65 0.95484212436214488 88 119 89 563 90 834 14 272
3694 6.2683895281813093 -2.8480493039006545 7.3107344113731099 122 133 129 2.7027713828315161 88 612 89 538 90 139 71 496
3691 -5.6609551830515858 -3.6583591900797248 2.9569903516899458 82 84 83 0.49128223823510409 88 562 89 514
3690 2.3467228444662562 -2.7589759469787736 5.25235355778561 36 18 14 0.21826593021791629 88 982 89 510
3689 7.4782940117137588 4.8604276634581609 4.7353725792003321 4 7 4 2.3631196049971961 88 450 89 393
3687 -1.8395768908018828 3.4320807823664445 11.353272204383568 12 4 2 0.68432414145208209 88 398 89 372 90 600
3679 1.010219454850646 0.77106845198301632 9.424833575572368 101 93 90 1.9067400991243275 88 800 89 249 90 338 69 910
3668 0.74741051661122337 -2.6242392530422767 6.0644209376914588 29 30 24 0.23959792239051239 88 124 89 66
3665 7.2944462220591548 2.6057526544235405 11.176766564073622 20 20 16 1.7284338975181566 41 2087 88 336 64 1060 65 1344 63 1105 62 1443 66 903 42 1403 87 345 68 368 70 342 22 1400 71 597 43 695
3657 -1.3126954752499655 1.4398997115442105 8.9482691466445772 13 18 14 1.8758031417390024 87 1848 88 1880 68 1811 17 1883
3648 1.4463856536502926 -2.3808372706668184 5.9042917829232682 92 87 84 0.64988748568965504 88 1820 69 1383
3641 2.1494463419196426 -1.9724883958246828 7.7282982927536095 16 21 17 2.0712871419817289 89 1647 90 2157 70 1339 91 1900 92 1433 88 1777
3632 -4.3711072978052758 -4.0532927091782671 10.573502104157791 101 101 105 1.4523291178209174 87 1486 88 1548 89 1506
3613 -1.9487720349753657 3.8063118401564293 10.67874046059595 8 13 7 2.6041947336976761 68 1427 88 1290 89 1317
3601 -4.5017364195682408 -3.5280506063443577 12.157416275889439 99 103 104 0.67590140380194408 87 667 88 1060 90 925
3600 -5.0109856854993087 -3.7141162400605872 11.815205773349248 94 96 90 1.6382755004373932 86 634 87 663 88 1055 90 1342 89 968 16 1083 15 575 17 1259 89 970 18 1428 19 1782 91 1411 38 534
3585 0.41963873918085953 -2.1790351146558096 3.9373036770592802 13 13 11 1.4074199330740662 87 923 88 995 89 1177
3575 7.5605832434724816 2.179145715322798 11.860021877967059 104 87 76 0.92587034984606609 68 883 88 823 70 330
3573 -5.1143092736378808 -1.4837031688836109 11.891271655324646 11 16 9 0.90304152147391592 85 690 88 737 89 1024
3568 1.0685610539913919 -2.1775167647724372 11.84358831971331 174 169 163 1.6277149894795502 87 986 88 699 91 1187 90 1343 20 1519 16 603 95 1508 93 1424
3567 -5.3389039479923035 -3.366392775670775 11.660289726104919 24 24 16 1.1981071328585575 85 954 86 643 90 1353 15 584 17 1265 18 1232 19 1558 14 493 35 536 13 532
3566 6.6704610347644815 -2.4119061045848227 11.255898740483163 126 122 121 1.1238105059185688 1 1310 88 669 69 630 70 634 92 846 43 641
3565 -0.65320822935719502 -2.5194243416038224 7.67329525919203 82 82 70 1.5336173436675424 88 655 84 933 18 1392 90 1312 91 1147 17 1253 94 1326
3558 -5.4311983062513223 -3.1000976657010897 1.0025491353293237 108 114 104 1.6093949552309201 86 41 9 221 7 224 8 196
3548 9.5187619549412688 2.619483650576464 10.528627940149017 10 6 0 1.4941228797926469 21 1488 88 333 69 308 2 477 22 1004
3526 2.7829630525182782 -2.9595623861290572 5.0229938913388175 119 119 118 1.3621718345041618 87 33 88 29 69 50
3516 -0.4554719511146732 3.3462183551618443 7.4635839497826071 20 17 12 2.0050674570327645 67 1008 68 1242 87 837
3512 7.3469198419488784 -1.3243923608003394 1.0024176030359109 0 1 0 1.5168960275621934 68 777 69 229 71 206 46 704 65 1813
3491 5.876881419342368 -2.2284620051040007 5.2145347923783705 29 29 29 1.388668155053395 67 1945 68 1771 88 1765
3489 6.8731706894200117 -1.9851082211356643 0.70863201576252177 106 111 110 1.0494043339843186 67 1942 68 1732 69 1325
3482 7.0828053335835319 2.6245423007531037 0.94701151249613247 174 178 179 1.3415718522444098 66 1911 68 1687 90 2079 69 1230 70 1213 71 1012 72 925 74 1036 45 594 46 820
3477 -0.93336910446972987 1.921985043012757 8.3750460472725905 0 0 0 0.4768016439875255 66 1702 86 1568
3443 6.6876642077135404 -0.32955074748332158 0.14765155457451593 71 83 95 1.7986929946653656 68 1369 71 840 72 763 91 1382 66 1668
3439 7.1091095143285212 -2.5665172144228316 11.58710892797842 110 106 101 0.77146790137049737 42 1566 62 1781 43 916
3437 7.5605484454813183 -1.9741913870652466 6.379290477167225 72 67 61 1.3696897742056051 66 1499 68 1334 90 1590 43 865
3414 -0.055303965602289333 -1.1118471294929706 12.063982453201243 196 196 194 1.713078867944881 87 1015 68 1125 89 1001 90 1365 14 630
3393 9.6446824162376608 1.5719730265158882 11.331860028961593 100 99 68 1.8890300394346435 68 862 69 685 70 901 88 1202 16 644 17 1082 93 891 94 1156 92 240
3367 6.8451000861152007 3.9730518850858836 1.5010446725403472 31 31 35 0.66200598809276279 66 1104 67 1098 68 568 90 559 69 455
3365 6.9089216155584801 3.7712860189132811 1.6263266406826167 181 180 186 0.80559089461627253 66 1090 68 557 69 444
3363 6.9915344226962066 3.7536405302666616 2.187181349831004 173 172 177 0.53470752519798836 66 1077 68 537 69 430 70 450
3362 7.0282093765175464 3.5271565840074723 1.7961242544063398 177 176 181 0.37711916435997045 67 1071 68 526 69 416 70 435
3353 7.0449562451791943 3.1225315432385066 2.6073663767344928 183 182 187 1.4332507429885601 67 1030 68 463 69 369 91 321 94 310 95 259 72 282 75 268
3351 7.0687956155124496 2.6057082811184453 1.6830519668492441 9 9 13 0.88549659624847132 65 1428 67 481 66 966 68 424 76 167 2 1076 77 1003 78 636 3 722
3347 4.0071464931965508 1.8798858553102666 11.447381032914523 184 181 183 1.1686947716943752 67 380 68 354 69 307 90 369
3344 9.7482346770275363 1.5161521135387215 11.728034673984775 4 1 0 0.39905652873763892 67 372 68 337 69 291
3340 1.3692096580808939 -0.22201488220936877 0.46012888997782353 53 51 52 1.3814312751445561 86 654 70 276 87 226
3329 5.793813953220317 -2.6786479831198986 0.21130115719760195 20 25 28 1.3148853396439986 67 653 68 66 69 58
3309 2.5623047701652442 1.8827490474622348 11.011380501568997 37 38 35 1.8836517155166155 67 1980 87 1797 68 1785 89 1696 69 1370 70 1348 88 1837
3294 -0.5880718703520168 2.3431018876786549 9.8841442933113637 3 7 6 1.0906898223064359 86 1570 87 1618 88 1687 89 1548
3275 -3.3239105621627747 0.14506888437374174 11.458038071504724 23 22 21 0.73562746150682912 67 1695 87 1358 86 1056
3269 -7.2586362748641697 -2.7911267478276431 1.0452909838528714 81 72 67 0.81850586430576211 86 1259 87 1301 88 1542
3267 0.5412131599905835 -1.8994589833353599 3.3584960773999981 4 2 1 2.1614194471238868 67 1447 70 954
3259 7.6796959940350362 2.1124675565835336 11.860348171850584 85 75 63 1.3210912347780108 21 1753 41 2076 42 1251 87 1171 89 737 1 1389 70 702 2 1260 22 1316 77 1365
3256 -5.4228470823602555 0.56491839302667157 10.919632264279572 101 104 97 1.6004162118400524 86 1327 87 1139 88 838 90 1059 19 378 12 430 89 763
3249 -0.77927720995093341 -0.18219457509972153 11.863631903956975 195 194 189 1.3478916072609513 86 1028 87 1069 68 1145
3248 0.1061267913665257 -0.35885195646776746 11.464561410165764 207 204 203 0.33303944190753215 86 1017 87 1052 88 1145
3217 -2.411113524969354 3.1972986032481607 10.681455177527987 17 22 18 1.0885662607780369 67 978 87 400 88 400
3211 7.9531399741219309 2.3172524195793418 10.793247438235854 79 59 33 1.4236398741219851 21 1478 63 408 87 338 68 364 17 355 16 265 93 408 2 482 22 1000 77 1140 71 268
3210 0.55998283276819294 1.6959394937870842 12.07508158935612 118 112 104 0.18726990105127586 21 1445 87 320 68 881
3208 6.51105227215408 0.47329261596925404 12.643809423700004 191 187 188 1.074668913979423 87 266 88 277 69 281 17 735
3206 1.9151878671876281 -2.2393253773561868 12.005888182653688 161 158 151 1.4517893401006685 67 247 68 251 88 230 89 652 91 779 16 880 18 1230 19 1542 93 1419 94 1371 95 1675 17 678
3205 7.2854072370431533 -1.9678944452976164 10.977603375252549 13 14 7 1.5026384652801419 21 1347 70 238 2 697 77 959 17 203 87 213
3204 1.9044977952574704 -2.3019540790888442 10.979306514485653 98 93 92 1.8726580229531793 67 231 68 226 69 619
3203 7.3290303131848935 -2.1228754525413147 10.743883296452431 126 122 113 1.331621318145463 67 266 87 208 68 269 88 204 89 114 70 218 91 173 1 209 77 186
3202 0.28734157781431235 -2.6545604635925799 11.101724176111873 9 9 7 1.3394752301336872 66 236 87 205 88 213 65 220 84 640 89 137 91 776 15 577 90 901
3200 -6.4397606928877202 -3.2818368990329287 7.7685657684054092 15 15 4 1.2956511292486772 83 171 87 189 88 208 16 861 15 379 17 1238 18 1406 90 916 14 78 35 436 13 301 38 531 36 318 12 228
3199 -7.2615247013803357 -2.7019062903965181 2.1454401240419694 90 82 80 0.54003520896934365 86 155 87 167
3198 0.8827340231556452 -2.7189173703211202 7.9714243671629408 2 3 0 0.66889265443265711 86 108 87 151
3197 -6.6443029378198926 -3.1059602393625876 1.2126505163060448 91 86 82 1.0977730824803367 86 79 87 94 88 604
3192 0.043430284668546287 2.3183778537704836 12.193140395039421 39 8 7 1.674698481512888 84 780 86 1145
3189 -3.8506350382710823 -1.4323001725510169 11.612926146961415 65 68 66 1.7721270043435857 1 1069 82 231 86 665 64 232 20 700
3188 -10.282716443117593 -0.16716327541201645 3.3392496824597679 196 197 199 1.2332708350528896 62 2032 86 1833
3187 -4.3160123256825083 2.8746419982690914 8.8851461899965525 26 33 26 1.5775227395150777 84 1861 87 1879
3185 -6.688352669696104 -3.1772702961493295 5.6130110885048365 78 68 62 2.1083630679469838 84 1830 86 1799 89 1757
3184 -6.1741209917729796 -2.5710169100696181 10.770216052021304 110 108 84 1.5421956760712312 86 1782 87 1859 85 1749
3183 -4.35224442749292 -4.0885331280850865 7.4848469139145593 29 33 34 1.5799169103630508 85 1745 86 1778 87 1842
3182 -5.2264992451702872 -3.633972701593128 4.9878620272554501 73 82 81 1.3183704306443322 85 1692 86 1757 87 1824 90 2262
3181 -5.7193065189014147 -2.8143772881675493 -0.21887755684053387 110 115 119 2.3740161815026046 85 1649 83 1506 81 1045 60 1257 80 706 59 962
3178 -5.1447946831216003 1.5139091700547438 -2.1903718910498453 7 9 7 2.1899471448408616 85 1546 86 1720 13 730 12 603 87 1839
3175 -6.3633033620191046 -2.0651448553122154 11.003817679725634 109 110 92 1.1960089964582556 85 1605 86 1697
3174 -0.2861036214187494 -2.5767426377983629 11.517262396453152 102 107 101 0.96305390419020365 85 1696 86 1692 87 1747 68 1773 88 1783 89 1651
3171 1.5305967947077421 3.604244579022017 7.9724742804637057 3 5 1 0.79584724377540306 85 1629 86 1660 87 1716 66 1860 89 1563
3169 -1.4877413040877165 1.0857682272343772 10.783834261748453 152 152 154 1.6308931836670917 86 1638 87 1602 88 1585 89 1428
3168 -5.179827322725191 -0.1495240808578169 11.291203958438242 3 8 2 0.67519684343207054 85 1663 86 1633 87 1682
3167 -6.9197093788599373 -2.2023585071334058 -1.7572555422636704 35 30 26 1.0001952939022574 40 1368 9 565
3162 -1.1694025958485506 0.60692785639389968 11.911744502504975 145 142 137 1.1123822960001926 66 1838 86 1557
3161 0.051545711843061115 -3.1073107368579196 8.1284189365885258 103 94 86 0.87444356324015693 20 1704 86 1540 87 1580 88 1646 89 1502 68 1552
3157 -5.7551392694939185 2.0013473576677181 12.345414823865543 65 65 55 0.66394102973397306 65 1883 86 1486 84 1475
3156 4.3700976508155804 -2.2185223120803603 10.341367624798133 226 220 224 1.6999834481199669 64 1450 86 1456
3154 -2.551296771129393 1.958460339549857 -0.92483834990680203 143 115 91 0.83254257520273489 85 1120 86 1409 87 1641
3153 1.3204767068454506 3.3903461125186958 7.618264706256376 0 0 0 3.1041111110214081 82 1331 85 1453
3152 -1.1636411070589232 3.3653785104433127 8.2096538292284453 4 4 0 1.5031894481272126 66 1715 86 1397 88 1478 68 1529 89 1318 90 1724 14 784 87 1429
3150 -3.8523843665562971 2.2806174803115966 8.6834985157828282 93 95 93 1.5359225812751551 64 1330 83 1182 87 1414 86 1373
3149 -6.4604204847268578 2.6886875693087071 11.534805453582843 11 10 5 0.93419143675851934 85 1309 86 1368 87 1536
3148 3.1773179191920868 2.1689641299810676 12.502757664901608 0 0 0 0.34887268906710156 20 1579 67 1588
3147 -2.1487127901354777 1.6135480633543247 9.8909155626562093 138 140 137 1.4145682932475367 67 1712 84 1061 86 1347
3146 -7.1205776612923737 -1.8203431516878152 -2.5622279922091971 162 159 168 2.8658842207554316 84 1238 86 1287 40 242 60 158 80 109 39 167 31 396
3145 -5.9004074449917852 -3.3219920407073023 11.272200365385324 29 31 28 1.3656131287127604 85 1223 86 1283 87 1496 88 1555 89 1397 16 1381 15 980 17 1665 18 1658 19 2034 14 796 13 633 38 631 36 422 37 486
3143 0.30569876079014879 -2.5549205339390948 11.085808377261612 20 16 20 1.4695857337104266 85 1208 86 1278 87 980 89 964 89 1220 88 1057 90 1818 91 1608 16 1369 17 1564 93 1790 94 1780 95 1925 63 1546
3141 -7.3742784417209242 -2.8588828806892455 1.3396847465174739 82 71 65 1.4446464124694298 85 1202 86 1260 88 1545 87 1481
3139 -5.1099063504942732 1.3581821578251441 -2.1572497731051343 7 4 29 1.3004806230089949 85 808 86 1189 13 649 12 494
3138 -5.0909925341146778 1.3295767347503016 -2.222727790988007 225 223 224 1.1211880521758446 85 806 86 1188 87 1441 13 648 12 493
3137 -2.3828015731662466 3.3084831546105069 7.5998324004861075 10 1 0 0.83828976564131352 66 1405 67 1416
3135 0.26242779334414623 0.54249193819520292 11.448885853536314 208 201 199 0.78273747686522821 85 1052 86 1073 68 1173 87 1115 88 1203 89 1061
3134 -0.20300192568649092 0.51571093305535121 11.741188828034439 195 191 190 0.86980992549585245 84 1287 86 1071 68 1170
3132 -2.0756041257035585 -0.027990269685484209 11.746846760560208 178 182 185 1.0104117512560788 86 1040 88 1190 87 1079
3131 -1.2110714618583873 -0.034218180414434092 10.750487812180845 151 122 92 1.0186677501890979 67 1298 86 1035 68 1152 87 714
3130 -0.71885262050936749 -1.0979847029250556 11.845561291851757 186 182 181 1.4830985708322879 85 984 86 981 87 1018 68 1124 88 1111 89 1005 15 771 16 1107 14 631
3129 -1.3958418807488413 -1.332616539924768 12.020302958675643 184 180 177 1.8084265210386081 86 976 68 1352 87 1340 15 907
3128 2.9575585199268399 -1.0527779558448456 11.34667171390412 206 202 199 0.30578421265979311 65 1252 86 974 68 800
3127 0.17233327158732975 -1.2755951989236747 11.795445867096374 186 185 183 1.2977239228212558 84 1235 86 973 87 1011 88 1100 91 1427 16 1101 15 766 90 1363 17 1303 93 1599 94 1566
3125 -6.8112663565841425 -1.7705814533287711 -2.5912367084974557 20 19 25 1.5937363466871686 83 236 86 940
3123 -6.9243799816413336 -2.5706244300226446 -2.1113301695117404 52 47 41 2.4927471058148094 86 909 85 186 83 622 10 358 9 272
3122 -6.8880357303618007 -2.5989155906763401 -1.8707025354124385 108 115 107 1.1502814712391285 86 908 10 293 9 360 11 235
3121 -5.1826051329695249 -3.3949314006034199 5.2812007997233135 124 125 117 1.9186580132998365 85 602 86 895 87 941 88 1354 89 1362 13 584 90 1799
3120 -6.505528967869604 -2.7666954815195508 -0.95419079370337678 38 34 31 1.7780878224021803 85 610 86 892 8 82
3119 0.21313204307236897 -3.112148124739357 7.9716742415781772 0 0 0 1.2861929184741914 20 1599 67 1161
3118 0.79855231117530789 -2.2739746913165568 3.7800253228071505 11 10 6 1.9303378226219932 66 719 86 861
3117 -5.209867478646192 1.3341677012265594 -2.1440243475248937 235 229 209 0.37245865627909897 85 414 86 795 87 1239
3114 -0.15814426381303565 2.7088612070190279 8.1266093475648411 138 112 92 1.2256543914103279 67 979 86 776 87 1215 68 1235 88 900 89 815
3113 -3.4997867255923238 2.4040928217682702 8.749026451042802 1 1 1 1.3847250548601799 84 795 86 759 87 383 14 220 35 383
3112 -6.9507402967988972 0.84485554328845303 7.5926183461078294 15 12 1 1.0992061841337306 85 328 86 712 87 1165
3111 -1.3061087779988059 1.15623758884094 10.990440514690162 151 128 102 1.6451973460577214 67 1343 86 710 68 865
3110 -0.31460476916265218 -0.68958410314311602 11.768251330199497 197 200 196 1.104820898889957 85 691 86 671 87 1033 68 1367 88 1126 89 1016
3106 2.2886421187156722 -1.8692944843557673 11.865986242323853 197 192 186 1.198844449657134 85 228 86 652 87 222 88 705
3105 -4.607962956627901 -3.0082084263251962 11.91158850568042 109 115 111 1.0498873365708337 85 230 86 648 18 1236
3104 -2.5330718588661507 -3.148657447190677 11.721698875455347 138 139 143 0.91340241654217813 40 911 86 638 90 915 91 1182 18 1222
3103 4.6393906955604542 -2.4901157102452731 11.567000633526145 221 213 218 2.2440179714859609 63 654 18 1420 19 1758
3101 -6.9078465849556405 -2.478302836521888 -2.1228495594915122 49 46 41 1.8290025389542277 85 198 86 617 10 201 39 113 11 287 12 462
3100 4.6253175293486848 -3.0539717575549266 11.272247706461044 175 169 175 2.6507969415262154 63 635 86 616 87 171
3098 -5.9778465435285577 -3.3578062178768264 5.4990008324875541 116 117 115 2.2791630661012161 41 1297 86 601
3097 -4.6433445219546057 -4.2172441514288037 9.5078406558634772 46 49 54 0.64388849943723492 85 919 86 590 88 1022 89 942
3096 -0.72047647364632816 -3.2362559882538267 8.6035442928832992 131 132 124 1.3472117622442916 66 175 85 120 86 588 87 957 67 709
3095 0.20853949620717754 -3.0325528822098251 8.1151777582656877 102 96 90 1.3230101357668513 20 1352 86 584 87 137
3091 -5.6535163356288036 -3.0059732423329342 0.91591702499349448 92 93 88 1.1959522878729085 84 126 86 559 9 72 7 51
3090 -5.3846631485982908 -2.9676733639243564 0.38232577318349975 95 100 96 1.6388776284418918 85 580 86 539 60 41 81 118 9 56
3089 -5.0917902060982332 1.422549903752556 -2.2188407311541511 145 153 156 1.156358501444152 85 421 86 383 87 849 13 483 12 289
3088 2.7702710409117435 3.9161712044954138 9.991720448721237 128 27 21 1.1771295668377706 85 418 86 377
3087 -0.75838547666872447 3.3068629177208457 7.7464010145967164 52 52 50 1.6976156849161494 84 824 86 374
3086 0.73462660563069959 2.9064421683567589 7.633989542733282 26 13 0 0.8186826679234378 65 1732 66 461 86 364 68 434
3085 0.77895015916077703 2.3387497068829197 7.6730484084489232 12 7 5 0.98118553281362131 67 419 86 333 87 388 69 356
3084 -2.190824216343263 2.1373122021417226 7.2438877089314051 41 28 22 1.8000197911204132 67 422 84 379 86 325
3083 -3.910868107939677 2.3662263243964872 10.646500957791156 114 115 110 1.9243229818784284 65 1360 86 313 84 785
3082 -3.0435130242925039 2.3855548162697242 12.25057019883822 8 10 5 1.3452268267266796 85 355 86 298 67 958
3081 -1.315827909309536 1.0312566503253586 8.3868643226444402 26 57 75 0.54615228104713698 67 921 86 264 68 868
3079 6.4794716741286091 1.2514725186074216 12.120413736276038 174 175 170 0.9945233587994684 41 1520 67 365
3078 -7.7910451418558173 0.41784852553633356 10.222125747465718 111 118 110 2.110159224873347 86 241 21 415
3077 1.8256197982217273 -0.82693252797318739 11.867003532037966 130 128 139 0.73132696347536807 85 256 86 211 15 408 91 225
3076 0.54109134643930157 -2.5966114263293019 11.082531595531359 253 251 252 1.5771374075044273 66 238 85 187 86 176 87 206 68 208 88 678 89 135
3074 -7.2803208759796254 -2.778352347004418 2.0477856440731075 85 76 69 0.37176479398443368 85 206 86 147 87 161
3073 -6.6636049225372851 -2.874012662412643 2.8222992400975073 140 146 144 1.1624905623031845 84 182 86 131 87 149 88 171 89 622 14 284 35 511 12 34 11 38 10 46 34 130
3072 -6.6479834699319591 -2.8907401342343211 2.6932980174147927 161 162 167 1.6632721835150561 86 127 89 619 14 281 85 183 10 43
3071 -5.5763086168009428 -3.1223854135432276 5.353680361907549 68 69 64 2.0611211469103972 41 51 86 121 87 155
3070 -6.8454668826909533 -2.886365813731127 0.78443969114765077 9 8 6 1.0604889082711992 85 170 86 106 87 586
3069 0.78068214077536069 -2.2942587405797004 3.9578504426315941 29 33 30 1.0762538471164167 85 56 86 26 68 80
3068 -5.3222796507852097 -2.9861693736592336 -0.43034322054009444 251 249 229 2.98515482041197 85 100 86 17
3067 1.6986663538339613 -2.069812425150102 7.2051873237041892 15 16 13 1.5450434677617877 66 2011 88 1888 67 2008 89 1744
3065 7.4970621547475291 2.0773665996753801 8.2466084325627182 98 72 37 2.9878087739014836 66 1900 67 1956
3063 -2.4679208497763616 3.0529943662253869 7.8250798040137992 146 121 80 2.6032585178861249 88 1477 66 1793 67 1743
3062 6.8011472866740581 -1.834984373705127 0.36025343192010562 100 100 95 2.1512139034376605 67 1664 68 733 69 170
3058 1.8878906653747325 -2.4934494169660506 11.905760695102718 64 64 63 1.5094997212701977 1 1038 85 195 67 230 64 192 63 239 87 211 62 696 68 223 88 220
3057 7.0855431915195579 -1.4709409262409836 11.758623194326381 211 210 207 2.327483368207294 62 1947 41 2478 21 2359 42 1690 1 1917 67 1912 64 1774 65 2093 63 1772 66 1891 68 1658 88 1786 89 1652 90 2063 69 1333 70 1321 91 1906 16 1541 18 1724 19 2098 93 1856 94 1852 95 1988 92 1403 22 1531 77 1661 43 969 17 1761 2 1438
3056 1.8541185746492348 1.104335941060598 11.99944876949532 103 95 95 1.4105742555282832 21 1722 1 1572 20 1446 67 360 65 339 1 343 86 706 87 293 69 690 17 306 18 747
3054 7.0832364702254562 3.1059433345035687 1.8478558169315134 105 105 113 1.7538564260331337 67 2017 69 1434 90 2293 70 1406 71 1172 75 1180 93 1997 76 1092 68 1838
3053 6.9249061967232528 -0.8202106631971221 0.31762724721919799 147 152 155 1.1061449978978306 67 2010 68 1822 69 1417 70 1390 91 2023 71 1147 72 1088
3052 7.6456959102014563 -1.6533190289740474 1.1112051581981555 46 47 42 1.7378965005899603 67 2009 69 1416 66 2015 68 1831
3051 8.4504630692356422 1.4690096435403794 11.760415417123291 136 129 103 1.8891947688721693 42 1731 67 2001 88 1892 68 1823
3048 6.9299814877490569 -3.0036693028317014 5.3235301466092411 14 20 16 2.0352526911964515 66 1981 67 1990
3047 6.8604091600567214 4.2111046999202646 3.7382703235361774 159 162 167 2.379478871683308 67 1984 69 1397 70 1369 91 1979 71 1125 76 1063 75 1148
3046 1.8837967687889803 2.7583985797409691 7.8463000849401219 217 53 51 1.3031382104610745 66 1946 67 1960 86 1747 88 1804 89 1700
3045 8.0586162102606043 -2.0992558696307797 11.702087879263226 0 0 0 1.8044840386387235 42 1689 65 2133 66 1937 87 1787 67 1947
3044 6.8718541428492506 3.660825249341269 1.0348786122788067 157 158 160 1.4808508506445608 66 1919 67 1928 68 1697 90 2102 69 1304 71 1021 72 939 75 973
3043 7.4476501752869941 -1.3595890963817738 0.84592439242338024 24 26 23 1.9580762944188705 66 1930 67 1906 68 1738 69 1275 70 1318 72 1015 46 824
3042 -1.0962643128186818 -2.6513773716421225 8.0441996707555745 97 99 98 1.8273665966141834 66 1882 67 1901 65 2084 84 1633
3041 6.8839954629219182 3.9361551682123208 1.0813598208287138 149 153 154 0.91305176374526675 66 1920 67 1889 68 1699 70 1225 71 1022 72 942
3040 6.9592059823524677 3.4247748872461052 1.0259797495086371 160 164 167 0.71112255719564743 66 1918 67 1888 68 1696 69 1300
3039 6.9853122350733754 2.8550663967524628 1.1486126215380905 78 79 81 1.0008298519016565 69 1232 93 1610 94 1577 92 1177 2 1429 77 1619 72 928 75 897 76 841 74 1040 58 1238 78 1087 3 961 67 1885
3037 -2.5534012374339445 1.8931326836170708 9.1498281912295116 76 73 80 1.2768191043299935 66 1903 85 1618 67 1875
3036 -1.0061834947948509 1.6997036598047635 8.8028503219993723 6 10 10 1.3233544614323143 66 1845 67 1874 68 1672 87 1611 87 1693
3035 -3.5613289746662526 -1.088514278634227 11.442963274723599 0 0 0 2.3944261676677852 41 2433 84 1761 65 2136
3034 7.5215225697457058 -1.4047370498608787 1.4591231531471047 28 27 23 2.0460284599806351 66 1881 67 1858 68 1577 69 1202 46 807
3033 6.8231991261473954 -2.6756211637549723 5.9894690665543235 80 86 82 1.6120096134085982 66 1818 67 1855 68 1645
3032 3.8619895370157997 -2.2593255011269222 5.8258682520272451 144 143 138 0.087351796413225893 66 1742 67 1854
3031 6.8728120160946391 3.8694677568705735 2.0945537571292956 53 46 54 1.1195764980797436 66 1795 67 1824 68 1530 69 1162 70 1141 71 951 93 1627 75 901
3030 3.4880456089131262 3.4427117117572479 7.735611267517986 156 27 22 0.79028986200611018 64 1707 67 1817
3029 -2.1084923978735217 2.4776553982205547 6.7521599789791784 137 107 69 0.46026567034175153 85 1539 67 1813
3028 -1.744527358458104 3.1498165959004969 11.535981440396995 136 108 80 2.305793575549437 84 1491 65 1898 86 1575 67 1810
3027 -2.2642760242339559 1.971875185715684 7.7078658963423132 8 6 1 1.3318066295275861 66 1849 67 1804 86 1371
3025 9.5352927822498756 -2.4992197264077864 11.372202345973026 78 74 63 1.3786115117648914 21 2247 66 1828 67 1783 65 2029 2 1414
3024 2.5460198316664879 -2.582363016943821 8.931943652921138 158 158 158 1.8296445641733126 66 1883 67 1774 85 1650
3023 2.7090098780243022 -2.681473820759761 8.5767743883884222 32 28 28 2.1074270258227421 66 1749 67 1773 87 1586 85 1491 86 1543 68 1563
3022 6.8135324057419728 4.5668560528914952 3.8312295766658044 41 45 58 0.43193541945182018 66 1796 67 1747 68 1531
3021 -0.3367503101454396 2.525938624273548 12.173748834783966 39 36 38 0.96444280543065375 66 1701 85 1430 67 1725 86 1365 68 1414
3020 4.9899831941274533 2.1943655806877111 9.9581414281270604 214 213 209 2.6380321820382644 85 1527 67 1720 86 1497 87 1401 88 1441 89 1276
3019 4.7801837058998036 2.1838957961351597 10.004414675407725 208 203 208 1.3548663832180952 85 1526 67 1719 87 1525 70 1126 90 1670 2 1424
3018 7.0056025482517708 -0.17378325925951113 -0.75068715561761334 17 23 19 1.4838404454441572 67 1694 68 1374 69 888 70 884 91 1152 92 619 71 726 72 655 74 544 66 1754 45 572
3017 -1.3453212609892657 -1.7640543356900538 11.892740821569394 189 193 192 1.5724394129363717 65 1852 84 1446 17 1294 88 1090 19 1795 93 1597
3016 7.4426714570722403 -1.2010677565102079 1.3342760746543301 150 149 154 1.8769080720457159 67 1687 68 1347 65 2079 95 1465 71 823 94 1327 78 1062 77 1571 2 1413 78 1099 3 955 46 791 44 534 45 568 22 1505
3015 7.9700613898633321 -1.5751483170629152 2.2176938261461361 90 83 73 2.0488339823638344 66 1656 67 1684 68 1339 46 707
3014 7.5362351683454598 -1.3796395161834574 0.33886271119953426 67 63 64 1.8134231045560973 66 1741 67 1681 68 1336 69 1200
3013 7.3295677809742692 -1.5948625844740894 1.4969349620291574 61 67 63 0.97963120197913145 67 1674 46 761 66 1642
3010 1.7484833433421862 1.8139911211763826 9.8126173091609079 16 20 20 1.7862559775654869 1 1887 67 1592 86 1354
3008 6.2607215021843698 -0.14067851793112957 -0.77155853963081067 11 13 8 1.8335816503817077 66 1670 67 1570 47 586 48 509 68 1141
3007 -0.68684024792476839 -1.3489192192838082 11.849246380960411 189 188 184 1.607167240284032 65 1645 67 1547 86 971 68 1353 87 1337 88 1398 89 1239 91 1429 16 1103 15 767 14 754
3006 -1.5364306935086725 -1.5103298198251818 11.624279550069257 190 195 199 2.6001992307374833 20 1522 85 1234 86 967 68 1110
3005 -1.7059991468657627 -1.4210879361862987 10.377049673613316 186 190 193 0.7626080568072634 85 973 68 1350
3004 -2.4180244095481198 -1.7408117982220721 12.505204467550945 186 187 192 2.7354252630402929 64 1236 86 965 87 1004
3003 1.4174362885256946 -1.9753464704319816 11.80231587912872 179 176 169 1.4859934891410476 65 1225 67 1532 87 988 68 1096 88 1066 89 983 90 1348 91 1191 16 883 15 590 17 1043 18 1235 19 1549 93 1428 94 1378 95 1510
3002 -1.8930651972425137 -1.9804718040765164 11.414092890530499 167 171 170 0.49638915847097698 83 1097 68 1329
3001 6.6758872120244686 -2.0106535346391166 1.0633695147679341 123 133 132 1.1940884537230483 66 1453 67 1486 68 1056 46 727
2999 5.9228375083908027 3.8851180330392396 8.0018957430104702 108 73 43 1.1935959613751379 67 1407 87 1233 68 927 90 1068 69 730 70 926 69 941 17 482 71 609
2998 0.66409511736219984 2.9542346073299668 7.5437878736423976 142 118 82 0.25315941016847815 66 1383 67 1403 87 831
2997 5.7447545200128651 3.1882371815131942 7.9120314827065386 206 50 45 0.93644169847312053 1 1619 67 1399 87 1224 68 1232
2996 -2.2732160521821494 2.2704027302232466 8.3652282642683335 16 18 14 2.2631316638842072 66 934 67 1392 86 1163
2995 -2.3500282027375556 2.1635081387349033 8.6980374725473819 13 15 10 1.6464104542475904 66 1583 85 1091 67 1388 86 755
2994 -0.076209972312221763 2.7577687551672456 12.127761437795606 113 100 94 0.81655837300158773 66 1357 84 794 67 1384 87 803
2993 0.24808967237228519 1.7480939841235776 10.278478642109091 125 137 117 1.0019918088224009 66 1349 85 1079 67 1364 87 1174 68 1214 88 1248 89 1094 16 1166 17 1501
2992 3.9411836129623161 1.5608482633706651 11.667939415777777 197 195 198 0.28667752169137201 66 1334 67 1352
2991 6.562280959409196 0.9741865823355077 12.282725152363387 197 195 198 2.199087227929744 41 2194 67 1331 22 1299
2990 1.9362182843486997 0.82539394138634214 11.355882086755834 201 195 195 1.2108849719693473 84 1296 67 1328 86 1094 87 1124
2989 2.2556191836874424 0.35620027474110838 11.794473293593919 208 202 202 1.3861731275248215 85 1029 67 1310 86 1057 87 1084 68 1164 69 900
2988 6.0892563159574919 -0.016287441648522766 -0.96723715180257108 118 119 121 1.3004240361912214 66 1250 67 1306 68 824 47 531 48 459
2987 2.460124678593397 0.070561442414356093 11.48815870734569 206 201 201 1.4201815570638117 20 1424 66 848 67 1305 86 1034 87 711 68 1156 88 748 90 967 89 694 16 902 15 621
2986 2.6847866098744126 0.066167159842223586 11.735013464752649 211 201 200 1.3462001242840724 1 1559 20 1425 67 1302 87 710 68 826
2985 -2.1669000995733199 -0.087797291638775088 9.3845060102450972 157 157 162 2.2627318383073094 66 1542 85 1025 86 1036
2984 6.9607729631778819 -0.38097648374134885 -0.055052976435256147 143 148 154 1.3521603009995986 67 1280 68 807 69 265 66 1515 48 458
2983 -2.0076533548934634 -1.3356981440378961 11.609675397465454 0 0 0 0.87059878518561151 62 1055 64 944
2982 2.25050443582326 -1.651572827138267 11.846199819670593 205 202 197 1.1888314341516877 66 1251 67 1251 86 950 87 994 68 1111 88 1074 89 986 69 1033 15 595 90 937
2981 -3.5606794984013281 -1.3653307464998301 11.347381602062145 116 125 124 1.0462351232778881 1 729 67 1249
2980 8.1158539362962419 -1.6581836241203927 3.0442173161583237 80 75 71 1.8132325901401978 66 1208 67 1222 70 849 71 698
2979 6.8269185879935401 -2.7300625090096551 6.1218358171040448 155 160 154 0.75006474716301297 66 1197 67 1192 68 732
2977 6.8164299259309331 3.9844017472891222 1.2336568860234689 0 4 10 1.2854912606110784 66 1427 67 1100 68 959 90 561 69 457 70 472 94 406 95 368 92 359 93 489 71 370 72 356 75 355 76 312 74 590 78 765 77 1182 58 1010
2975 6.8835949457080066 3.8504372017596569 1.5011345915909269 6 11 15 0.8241981749936077 66 1097 67 1096 68 562 69 450 90 542 70 463
2974 6.8467098233591059 3.9337383893758591 1.7707799691275559 15 19 20 0.99672685149944307 66 1422 67 1095 68 958 90 1089 69 743 70 466 94 402 95 364 92 363 93 488 71 366 72 353 75 353 76 547
2973 6.9149240562212606 3.7958109063775778 1.5177631506205826 169 171 176 0.42377185659307059 66 1096 67 1094 68 560
2972 6.8632328686857047 4.5359794095811097 3.4762451650282209 167 166 172 1.7134226049118557 66 618 67 1093 68 1244 69 745 70 931
2971 6.9355409423867451 3.7382259037600938 1.4424228354998434 176 178 184 0.57410874866149375 66 1095 67 1092 68 558
2970 6.9329910243301631 3.7350178018803253 1.507450037369314 8 12 15 0.57631361927678226 66 1091 67 1091 68 556
2969 6.8928433821062862 3.9306482334575343 2.044703283808087 14 16 15 0.67484918613510425 66 1093 67 1089 68 559 69 447 90 544
2968 6.8937153349683014 3.6951095703485253 1.5936952401627558 4 3 11 0.61960799342111306 66 1088 67 1088 68 551 90 522 69 439
2967 6.9276251683811667 3.5987636212980734 1.3371647177125072 24 21 38 0.46671563008955491 66 1421 67 1085 68 546 69 432
2966 6.8950085840162192 3.8947292617777127 2.1622270682553757 12 9 16 0.94202065113053191 65 1518 67 1084 69 445 90 1084 94 889 95 362 93 487 92 362 77 1378 71 364 72 349 75 558 76 546
2965 6.913990946352091 3.4635078602801026 1.1830885191634024 30 29 33 0.63293426832987898 66 1419 67 1083 68 539 69 741 2 1166
2964 6.905313574442105 3.5559534798094283 1.5818323779365362 20 23 30 0.96839439013824447 66 1418 67 1082 68 956 69 428 70 447 90 1066 91 368 94 367 95 321 92 325 93 444 71 345 72 324 76 273
2963 6.9592777220711124 3.5269766301976766 1.4934245110196398 157 158 160 0.22717735893552496 66 1081 67 1081 68 955
2961 6.9907253622953043 3.4789776733199846 1.4228158779495004 164 163 168 0.53918490553830523 66 1078 67 1079 68 532
2960 6.9718823658846381 3.5178217448794498 1.6063540616597602 170 169 175 0.54829930238920455 66 1075 67 1077 68 531
2959 6.9257986893102625 3.5244126543410657 1.8508468149266089 15 13 26 0.76418946330855897 66 1071 67 1072 68 528 69 421 90 496 70 439 71 344 72 320 75 312 76 270
2958 6.9758116150381788 3.3318998178032921 1.3191223400106376 17 16 26 0.33245954835470648 66 1412 67 1070 68 517 69 409
2957 6.9450403932647502 3.2610242514291481 1.1698326883559909 170 169 177 0.97680702074212211 66 1411 67 1069 68 514 69 405 70 422 91 338 94 322 95 270 92 296 75 278 74 284
2956 6.9483473118271766 3.4179643223045661 1.7142611224598705 18 17 22 0.65422225831347303 66 1063 67 1065 68 516 69 413 90 478
2955 6.9329286360021571 3.5082843181531387 1.9996894396622984 34 35 37 0.95878121387207982 66 1061 67 1064 68 522 90 489 70 433 95 319 72 318 75 310 76 268
2954 7.046302938696531 3.2148490576172088 1.4706157657783121 23 24 29 0.77156890712822412 66 1045 67 1055 68 494 69 392 70 413
2953 7.0296718660155477 3.2384971807025149 1.7449378589691258 180 181 185 0.48762273703124981 66 1403 67 1052 68 941
2952 6.9816634910956887 3.1462382176068342 1.6877839092318858 4 8 9 0.91395585967192139 66 1032 67 1049 68 487 69 386 90 450 70 407 71 317 72 288 76 225
2951 6.9850846199461163 2.9280164219395224 1.1144953517250307 25 25 27 1.2794803743043686 66 1027 67 1047 68 476 69 375 90 423 2 845 65 1771 71 306
2950 7.0670725456090144 3.2247587511913989 2.0185220427407793 176 177 182 0.32049000369140201 66 1030 67 1046 68 484
2949 7.0629941654136124 3.218466934251091 2.5451160510666022 34 33 39 0.96187623669425726 66 1011 67 1039 68 473 69 380 90 447 70 403 71 321
2948 7.0622244163613574 2.9046791811923125 1.5518781004729347 2 4 12 0.38030257229770326 66 1008 67 1037 68 465 69 364
2947 7.0190778227348209 2.7206657445694082 1.1082895676334561 160 161 165 1.0901166774613127 67 1034 68 457 90 1021 69 725 94 262 95 202 93 382 65 1764 2 1096 71 292 72 258 75 220
2946 7.0989697733241073 3.1729759993213307 2.5511411297417248 173 174 179 0.32810925911027605 66 1006 67 1033 68 467
2945 7.1022935144279842 2.9139452899547327 1.7080183560594193 18 19 24 0.48771216221352082 66 1396 67 1032 68 459
2944 -0.43713440720902824 3.6761551986762369 7.5566401337516114 101 78 54 0.87333942732188607 66 1409 67 1031 15 309
2943 7.0739579629669702 2.7819931917489931 1.4067916590925786 14 13 21 0.33689405414386275 66 1394 67 1028 68 455 69 358
2941 7.0218808501013648 2.6587094015980925 1.0813190325205431 25 29 30 1.0527151687596035 66 998 67 1025 68 450 69 350 90 382 2 819 65 1759
2939 7.0917091780704267 2.7222330417208398 1.4137283443789093 180 181 185 0.33402507948458116 66 1387 67 1023 68 930
2938 7.1496377577704013 2.8951841092134036 2.0089095842395932 16 20 23 0.62633540942951382 65 1752 66 1388 67 1022 68 933 69 357 70 387
2937 7.0568516776493579 2.6379029820769477 1.2922570871487449 174 173 179 0.67952318383652865 65 1755 66 983 67 1018 68 439
2936 7.0841507132171158 2.7022882343952093 1.5128520332375148 185 184 190 0.24292523761573459 66 1385 67 1017 68 438 69 346
2935 7.1251380813405172 2.7023401692310283 1.6905406110857752 178 179 184 0.51952504867938099 65 1750 66 1384 67 1014 68 924 69 344
2934 7.074049131480364 2.7154248599619422 1.9129281290800784 23 22 28 1.026042800557017 66 972 67 1013 68 433 69 343 90 385 70 372 94 263 95 209 93 388 71 290 72 256 75 221 76 183 77 1334 78 871 3 850
2933 7.1592916244925506 2.9070463944058931 2.5423180710514672 186 185 193 0.59135348127627907 66 975 67 1012 68 437 69 351
2932 7.205196141643369 2.8564534150345136 2.5580917559363376 14 15 17 0.84449866339535651 66 967 67 1006 68 431 69 345 70 374
2931 7.1516204113549433 2.6138879680841254 1.869927197969764 188 189 194 0.3216413000570853 66 959 67 1002 68 416
2930 -2.4761324515569441 3.181898336940975 7.8209133393533179 55 36 30 3.0240532532912892 66 535 67 999 88 425
2929 7.2577329865088336 2.6585598855205412 2.5585477648400561 185 186 191 0.81132857309335393 66 945 67 993 68 404 70 358
2928 6.2810510920752423 4.341028571318855 9.2861878238031519 0 0 0 0.35105195702542885 65 468 66 1378
2927 7.2714348870172918 2.6490830691258136 2.6714540517139893 192 192 198 1.3939862218732666 65 1399 67 990 68 402 66 942 70 356
2926 -1.325227516094079 2.8476695789447226 7.7193037611750759 21 10 16 2.415226920667267 66 986 67 984 68 1237 87 1221
2925 -0.15215406653730806 2.7560142970703172 7.6914513785748548 161 141 90 1.6258404102259767 66 962 85 393 67 982 86 778 87 825 68 923
2923 -0.0712402336267388 2.8586901275678724 11.898342960048991 113 88 81 1.2463851543575097 66 1361 85 1092 67 966
2922 7.9391166700106037 2.5927796030716652 10.56230898838767 23 22 15 2.1343555401238743 66 901 67 959 87 1194 68 896 69 711
2921 7.3925908481665159 2.521436473378369 11.246116998977165 183 175 163 1.0314884210773814 65 893 67 953 70 920
2920 8.7528129834959749 2.5000209856599578 10.697007618457437 93 68 37 0.88712009030044958 65 890 67 952 88 837
2919 6.2246273054998582 -0.020185361514403387 -0.80156810575391757 1 4 1 2.2451539237305154 67 879 68 823 69 268 66 1253 47 532 48 460
2918 6.2945665855694619 -0.52854215463666965 -0.34549574276807671 145 145 143 1.2884868478971969 67 856 68 293 47 525
2917 6.145019401731215 -0.53152293747090451 -0.35930727397781093 44 44 45 1.244044112872525 67 854 68 799 47 524
2916 7.7308747847095614 -1.6190560573874042 5.9607150493673347 13 11 14 1.525248469926991 67 839 68 1105 90 1300 91 750 95 1202 22 1436 71 712 1 1763
2915 8.1584221997363642 -1.7292854999817653 3.4884769958451183 70 65 61 1.2458631128820685 66 781 67 816 68 770 69 222 71 194
2914 7.3051519328966172 -1.2962973832223721 0.025754160882893784 33 31 43 0.94548216938712326 66 1192 67 808 68 252
2913 7.3004218014154354 -1.3072863489431896 -0.033153579734442898 71 70 68 2.1423503916461537 66 1189 67 805 68 253 48 383
2912 7.9677097192009878 -2.1063115569138589 3.5062287126839191 20 15 11 0.90282954717429864 66 171 67 785
2910 6.3777068269404884 -3.6756022265009678 5.4239996095526211 31 32 26 0.53215435554145007 66 88 67 700
2909 6.8421282641163828 3.9714288266841526 1.4383792661171246 175 176 180 1.0172910452541128 66 1105 67 603 68 569 70 471 90 1094
2908 6.8204974891056596 3.9512721243242415 1.5677628126812306 30 29 35 1.0015236282278459 66 1424 67 600 68 566 90 557 69 454 92 364 71 367 72 354 76 311 74 592
2907 6.9025607930142119 3.8676136596596344 1.452212908578 173 176 181 0.55628280233065119 66 1101 67 595 68 563
2906 6.9233314725670487 3.6419746272971976 1.2603625111982357 181 180 185 0.20779175901985761 66 1092 67 588 68 555
2905 6.8961341688881888 3.6785924170028905 1.6674152099308321 169 171 176 0.57034872113011115 66 1087 67 583 68 549 69 437 90 519
2904 6.9108714574761425 3.8808624262901543 2.4307210476487082 19 18 24 1.209883287840793 65 1073 66 600 67 578 68 547 69 441 94 399 95 360 75 351 76 307
2903 6.9561651175987205 3.7475636494803592 2.0572764791597775 184 183 189 0.67600208189486921 66 1083 67 577 68 542
2902 6.9202673564005233 3.4521071473304872 1.3131749692523293 7 5 11 0.6035365700849713 66 1082 67 574 68 534 69 424 90 491
2900 7.0171858957432205 3.6217359650932583 2.0901429940381342 176 176 178 0.51599732417068156 65 1065 66 580 67 564
2899 6.9744565703330066 3.4313226619950719 1.6664066547058485 177 178 185 0.41509032965735632 66 1065 67 563 68 520
2898 7.0094261917777994 3.5657935346365206 1.976659934152708 179 178 183 0.53678966116584426 66 1068 67 562 68 525 69 418
2897 7.0046048162975456 3.671965951321488 2.3266772162957294 13 11 21 0.48569465398806599 66 1064 67 560 68 527
2896 7.0114989894089605 3.3330350354234017 1.4692577105840336 17 16 21 0.46868293694536139 66 1059 67 558 68 509
2895 6.8964976427095515 3.1686219133946594 1.1034908350821833 18 18 23 1.4239563654231429 65 1508 66 1057 67 557
2894 7.0082635562041711 3.7081661691295182 2.6020869030392881 186 185 191 0.57715784013429416 66 1058 67 556 68 523
2893 7.0010020988664294 3.5336960851960835 2.1561455405599554 16 17 22 0.3568714159258366 66 1054 67 553 68 513
2892 7.0575463077993117 3.61095694315049 2.3451214070540991 9 10 15 0.66296169261192328 65 1050 66 570 67 552
2891 7.0188330021998953 3.529748410402322 2.3012357549286073 11 11 13 0.43983893246140399 66 1047 67 548 68 507 69 410
2889 7.0420077513214343 3.2936984030373897 1.8770634659388099 10 8 19 0.36198834816027886 65 1482 66 1041 67 539
2888 7.037117378321601 3.0645665394320387 1.3691346235781459 182 181 187 0.41024859593095814 66 1031 67 531 68 483 69 382
2887 7.0022375681425402 2.9075352739404972 1.373241441471911 8 9 11 1.0474636658498122 65 1028 66 1015 67 521
2886 7.0940879705410289 3.0268067938324879 1.9206840223070656 179 178 184 0.51161373543306177 66 1009 67 512 68 466
2885 7.1900800420473132 3.2694977452082061 2.7669886989869421 22 20 28 1.0869488377219201 65 1005 66 515 67 509
2884 7.0026957312003741 2.7537902885069365 1.2257839050011177 12 12 18 0.8510233488855895 65 1459 66 1003 67 508
2883 7.0916631247037394 2.7995940605801528 1.3495938827951794 170 169 175 0.50041605056196448 66 1002 67 507 68 456
2882 0.77278456348616664 3.7164773525634538 7.4306044373286264 97 78 60 1.256215213662139 66 553 85 425 67 504 89 390 69 458
2881 7.1392181910966821 2.7895076869185451 1.6393022880888712 177 175 186 0.51276760871820959 66 992 67 497 68 447 69 353 70 381
2880 7.2127384475847114 3.0183937216280059 2.460416707429546 14 13 21 1.0238929772697523 65 1435 66 991 67 495
2879 7.0528624638938018 2.6427099399527609 1.3535209254239329 7 6 12 0.72216142913057835 65 1442 66 982 67 493
2878 7.2041071475794549 2.9042075898064632 2.2322829619192111 187 186 192 0.64572671845176044 65 1433 66 489 67 491
2877 7.1336814589274615 2.7552573660702002 1.8893887746817966 182 181 189 0.23042015023510107 66 977 67 489 68 435
2876 7.0708145095692947 2.6179466022506785 1.5608004037112961 199 198 204 0.14354077799710097 66 971 67 486 68 427
2875 7.1262343578938143 2.6455331325271678 1.6570796971793036 7 8 12 0.35660948243611634 65 984 66 464 67 484
2874 7.1576748152685763 2.6285155032485812 1.8163698709470195 0 0 7 0.4532966971815206 66 963 67 476 68 417 69 337 70 369
2873 7.0846667967402892 2.4851688767690141 1.3938502310708252 9 8 14 0.16818550971065416 66 957 67 474 2 791
2872 7.1625763655432744 2.5643100619340586 1.6643280629660147 12 13 17 0.25685299912028364 65 1423 66 443 67 471
2871 7.2812669393525136 2.7497792911636401 2.4575877846576075 15 14 20 1.0510921041282992 65 962 66 440 67 469
2870 7.1962216266170271 2.7195957234686388 2.4447126009542455 175 174 180 0.35697107926598104 66 954 67 468 68 412
2869 7.2438168130641909 2.6225160845768887 2.2673787420175571 25 24 30 0.7285748672230894 65 1408 66 948 67 465 68 405
2868 7.2019739334707218 2.494143285459117 1.8832253815556685 183 184 189 0.51146760518085121 65 1412 66 944 67 461
2867 7.2282403145530489 2.5882900296820774 2.3849922422958723 9 6 17 0.96339918040042416 65 1405 67 460 69 327
2866 7.3093970593697568 2.6197623877225609 2.5101006852798187 189 188 195 0.95185286437847905 65 1400 66 940 67 457
2865 -2.3801078523557617 2.7575750728391064 7.5301186030164704 139 111 84 0.096058961066531209 66 502 67 446
2864 -2.1525501196557455 2.525101890864335 7.1363529104748062 34 26 24 2.0565017103869963 84 389 67 435 65 451
2863 7.4861579918287315 2.5741119439236329 9.9569403613280993 111 70 65 1.4789813935981646 65 902 67 401 87 352 68 372 89 279 90 352 69 315 70 344 91 272 92 323 71 276
2862 4.5779021420235528 1.8794978132671636 9.2180994874054516 126 123 128 1.4096894692788915 85 344 67 388 86 740
2860 9.6310059333497833 0.78798014062994703 12.049154334712822 83 76 52 1.1040797083357614 62 1382 65 1293 66 851 67 346
2859 7.0153581121375952 0.42966048149086811 11.193804131249129 108 104 95 0.52612554678917678 41 1782 67 335 68 313 2 1009
2858 3.7454578947899213 0.18422792500406046 11.70091996639079 215 214 219 2.0974919347768903 42 685 2 722 22 971
2856 6.173989208584107 -0.13021531606905018 -0.86289837742580244 12 17 15 1.5320640896492446 66 816 67 309 47 441 48 313
2855 5.9052259376613598 -0.299611411524285 -0.31153812829406957 18 17 19 0.29398171597769729 67 298 47 307
2852 7.5118429617624027 -1.5725274217735943 1.7142049948648808 24 26 18 1.3598086982065982 66 173 67 235 68 236 69 217 70 203 71 189
2851 7.5698280854525031 -1.8378822671770696 3.6558543237205838 14 9 6 0.52940398915734066 66 776 67 232 68 233
2846 -1.7539148878899142 1.0775927418866553 8.4923652538731282 0 0 0 0.3313979444411882 64 1844 82 1676
2844 -0.41943125979002532 2.8808219420770071 10.9808175308643 107 72 53 3.3609783458495128 40 1437 20 1329
2843 3.5026555100399328 2.0262845532221454 11.887719773897622 0 0 0 0.026165761808257061 21 558 41 1537
2841 -5.5583341061765834 -3.3599837782942075 3.4548731957607681 106 107 111 1.1421436475610596 20 553 87 87 85 127 88 603 89 555 61 69
2839 1.5132504637899147 -0.74541482307758589 10.985206140332226 211 210 216 1.9134721090783333 1 745 20 744 69 262
2838 -0.89977244074052087 -3.524945459621367 11.720963951612109 28 29 31 1.5645225934896756 1 636 20 655 15 375 90 234 94 743 18 60 19 687
2837 -5.0803799496023254 -3.6453622108537886 7.7413315433959298 127 128 122 1.8233597184627985 41 2111 61 1201 40 1469 20 1493 83 1066 85 924 86 906 81 718 63 1200 82 1067
2836 -6.6346261402989004 -1.832110811490008 3.5762281870787263 176 180 183 1.1091315577039345 61 1628 20 1820
2835 0.39757997963951797 1.2371834099846628 11.686112604608796 143 77 61 0.9049008723423122 85 1730 20 1806
2833 -2.6527169417888312 2.3352397474184956 7.5376666815736604 131 114 96 0.43211849583520867 40 1724 20 1781
2831 -8.3924117314020616 -0.24110005548663901 8.5686288107589803 18 19 3 2.5001347188175891 61 1590 20 1750 60 1353
2829 -0.78288023507097315 2.7980868786164672 11.773082089444399 111 113 108 1.0260422921374204 40 1656 20 1697
2828 -0.51969751421416521 1.6331603539317983 12.163649121121871 106 108 103 1.1938395197867659 62 1714 20 1639 61 1456
2825 -7.3416775850284148 2.2541053753455405 10.930929001850048 3 5 0 0.63098203945674858 40 1519 62 1589 63 1474 20 1549 81 995
2824 1.5179093624723874 -1.8695269415091678 11.894985021058814 144 144 136 1.5801142960568446 84 1209 20 1521 85 1229 87 681 67 831 68 785 88 709 89 666 91 786 90 934 16 887 15 592 17 686 18 1237 94 1144
2823 0.25470747319900544 -2.0077973376462634 11.965764808086753 158 159 153 1.4670949606257326 66 1522 20 1520 86 943 87 990 68 1341 88 1069 89 985 90 1634
2821 -0.54264311096459106 1.5296374426192694 11.584828976097642 140 142 139 2.8006641589806969 1 1714 65 1334 20 1445
2820 -1.6969096787228686 0.10759424303036438 8.5761778359865772 137 138 133 1.0429473242499441 1 1691 20 1411
2819 -4.6489793517482436 -1.2885413288636423 11.329363315121823 50 56 54 2.4856197568881422 40 682 64 949 20 1394
2818 -0.81869680516577348 -3.4087334578795434 11.6767142873257 71 76 72 1.7700022868390424 1 1497 20 1368 94 1539 91 1393 95 1805 18 1411 14 612 89 950
2816 -0.64574864468596438 2.938164330966563 11.545983138464882 25 24 18 2.0785967270673931 40 1435 20 1324
2815 -3.1630500316907595 2.2180981032003229 8.458561364060273 33 30 25 1.4772311764505284 82 334 20 1302 63 796
